ply
format ascii 1.0
comment VCGLIB generated
element vertex 1166
property float x
property float y
property float z
property uchar red 
property uchar green
property uchar blue
element face 0
property list uchar int vertex_indices
end_header
-0.0021898 0.216216 -0.0925853 128 0 128
-0.128688 0.336519 -0.00577812 128 0 128
-0.835566 0.0306055 -0.0631009 128 0 128
-0.816894 0.104245 0.0541845 128 0 128
0.609316 0.0726098 -0.0152313 128 0 128
0.683309 0.168485 -0.0379453 128 0 128
0.472565 0.0500565 0.131416 128 0 128
-0.00908309 -0.291195 -0.050149 128 0 128
0.0617646 0.0865855 -0.110958 128 0 128
0.203492 0.733037 -0.0246213 128 0 128
0.341791 0.806453 -0.0248124 128 0 128
-0.551051 -0.103541 0.0681167 128 0 128
0.143313 -0.0873974 0.0456825 128 0 128
0.679072 -0.0100214 0.25562 128 0 128
-0.012631 -0.470701 -0.0312892 128 0 128
-0.199572 0.382808 -0.137214 128 0 128
-0.0515623 0.234539 -0.0221847 128 0 128
0.358705 -0.0289213 0.0713016 128 0 128
0.0690423 -0.212173 -0.0488014 128 0 128
-1.02197 -0.000602359 -0.00304458 128 0 128
0.018149 0.456248 -0.0360398 128 0 128
0.283699 -0.0200584 -0.126455 128 0 128
0.0686881 -0.0937138 0.0418328 128 0 128
-0.124197 -0.106175 0.00977123 128 0 128
0.419804 0.0326841 0.0815345 128 0 128
-0.261785 -0.15739 -0.0502832 128 0 128
0.600079 -0.105145 -0.0252035 128 0 128
-0.0184719 0.331891 -0.0169841 128 0 128
0.238236 -0.66591 -0.0225765 128 0 128
-0.693263 -0.0116825 0.157996 128 0 128
0.256891 0.635721 -0.0337391 128 0 128
-0.893711 0.0947749 0.0440984 128 0 128
0.057104 -0.416292 -0.0414141 128 0 128
-0.833969 0.0894981 0.113353 128 0 128
0.141599 0.0635301 0.0727125 128 0 128
-0.738752 0.0223665 -0.0503778 128 0 128
0.801375 0.0294094 -0.021637 128 0 128
0.379876 -0.0486683 -0.11077 128 0 128
0.315911 0.0276019 -0.124088 128 0 128
0.131145 0.508524 -0.0382436 128 0 128
-0.0508393 -0.205261 -0.0248959 128 0 128
0.0438632 0.595788 -0.0125073 128 0 128
0.321903 0.766322 -0.0259461 128 0 128
0.273579 -0.0936442 0.0209372 128 0 128
0.315194 -0.0905493 0.0208122 128 0 128
-0.363554 -0.0976983 -0.0535936 128 0 128
0.141969 0.105941 0.00960258 128 0 128
-0.133621 -0.41129 -0.0751129 128 0 128
0.204371 0.583339 -0.0393176 128 0 128
0.226911 0.0200731 -0.127094 128 0 128
-0.139493 -0.216799 -0.0539091 128 0 128
-0.0139414 0.193998 -0.126262 128 0 128
0.0733158 0.0127835 0.0974881 128 0 128
0.194129 0.699023 -0.0269878 128 0 128
-0.0823032 0.168291 -0.15206 128 0 128
-0.695446 0.101434 0.0169137 128 0 128
0.569372 -0.0178026 0.172093 128 0 128
-0.210644 0.211891 -0.0471427 128 0 128
-0.0988238 0.364165 -0.00583143 128 0 128
0.0195815 -0.408051 -0.0400586 128 0 128
-0.640116 0.104921 0.0240822 128 0 128
-0.0472057 -0.0779946 0.0728456 128 0 128
-0.052815 -0.175864 -0.142509 128 0 128
0.310713 0.0719639 -0.10011 128 0 128
-0.422322 -0.10664 0.0226678 128 0 128
0.315166 -0.73879 -0.027937 128 0 128
-0.171451 -0.307849 -0.0293072 128 0 128
0.105337 0.339784 -0.0470195 128 0 128
0.0309392 -0.329833 -0.0255168 128 0 128
0.505525 0.135308 -0.0313928 128 0 128
0.364846 -0.0120317 0.11258 128 0 128
0.074095 -0.508266 -0.0351201 128 0 128
-0.186788 -0.0317824 -0.092731 128 0 128
-0.0289885 -0.409827 -0.036526 128 0 128
-0.42595 0.105755 0.0495304 128 0 128
0.0613659 0.0433949 0.0903043 128 0 128
0.495091 -0.0466985 0.140383 128 0 128
0.00907813 -0.302867 -0.0248982 128 0 128
-0.00536827 -0.45999 -0.00768884 128 0 128
0.189143 -0.686887 -0.027326 128 0 128
0.516433 -0.132375 -0.0357416 128 0 128
-0.00275017 -0.0151152 0.102909 128 0 128
-0.493462 -0.0945909 0.0862106 128 0 128
-0.817769 -0.0397168 0.15718 128 0 128
0.535472 0.0476746 0.0997383 128 0 128
0.105758 -0.561417 -0.0137386 128 0 128
-0.034884 -0.183436 -0.0308725 128 0 128
0.280728 0.741558 -0.0283107 128 0 128
-0.16173 -0.342234 -0.105604 128 0 128
-0.311133 -0.378867 -0.0355275 128 0 128
-0.0031381 0.0389842 -0.106833 128 0 128
0.437394 -0.0230685 0.0986805 128 0 128
0.0441182 -0.108412 -0.0587841 128 0 128
-0.0448833 -0.227351 -0.0234573 128 0 128
-0.977277 0.0739945 0.0334429 128 0 128
-1.07147 -0.0161026 0.0914046 128 0 128
0.822529 0.00307544 0.256033 128 0 128
0.765805 -0.0322062 -0.0337784 128 0 128
-0.30911 0.107537 0.013706 128 0 128
0.629384 -0.263699 -0.0230831 128 0 128
0.425763 -0.0890268 0.00465229 128 0 128
0.430487 0.00683368 -0.117881 128 0 128
-0.0398303 0.359157 -0.0113897 128 0 128
0.190014 -0.660185 -0.0157619 128 0 128
-0.0555887 0.407533 -0.00674132 128 0 128
0.503597 0.114905 -0.0358925 128 0 128
-0.0716002 -0.165693 -0.173026 128 0 128
0.682047 0.278784 -0.0301554 128 0 128
-0.496096 0.0590052 0.124508 128 0 128
0.446601 -0.00927414 0.085965 128 0 128
0.659124 -0.0581127 -0.0234897 128 0 128
-0.279038 0.103284 0.0502037 128 0 128
-0.5422 0.0965633 0.0863422 128 0 128
-0.138559 0.153603 -0.0158101 128 0 128
0.11902 -0.637296 -0.026412 128 0 128
-0.0670175 0.215115 -0.185472 128 0 128
0.0111414 -0.136564 -0.0717261 128 0 128
-0.0296483 0.101173 -0.0792694 128 0 128
0.324397 -0.0440848 0.067158 128 0 128
-0.698621 -0.0386109 0.151846 128 0 128
-0.0332804 -0.350933 -0.0127217 128 0 128
-0.166508 0.106159 0.0290439 128 0 128
0.649355 -0.193068 -0.0444394 128 0 128
-0.0713026 -0.165392 -0.151583 128 0 128
-0.879036 -0.0216123 0.160379 128 0 128
0.306247 0.093297 0.0254779 128 0 128
0.683287 -0.307015 -0.0285659 128 0 128
0.111637 -0.367707 -0.0370974 128 0 128
0.141573 0.38894 -0.0444687 128 0 128
0.171146 0.722187 -0.0228696 128 0 128
-1.04149 0.0347642 0.0146421 128 0 128
-0.694609 -0.0149647 -0.0548602 128 0 128
0.20309 0.100806 0.0200667 128 0 128
-0.0412506 0.385455 -0.0677559 128 0 128
-0.496232 -0.0891152 -0.0237631 128 0 128
-0.0907619 0.205478 -0.0592117 128 0 128
-0.0352598 0.0171341 0.105468 128 0 128
-0.0398567 -0.481044 -0.0231205 128 0 128
0.0379254 0.529479 -0.030588 128 0 128
0.590976 0.234941 -0.0207052 128 0 128
0.296837 0.106282 -0.0235854 128 0 128
-0.556504 0.103151 0.00945847 128 0 128
0.245448 0.0362321 0.0788701 128 0 128
0.344414 0.0353265 0.136797 128 0 128
0.562567 0.164097 -0.0401616 128 0 128
0.422318 -0.0937422 -0.0225605 128 0 128
0.381897 0.049475 0.154441 128 0 128
0.0568725 0.359108 -0.027749 128 0 128
-0.109316 -0.360952 -0.0763352 128 0 128
0.115759 -0.0476104 -0.115805 128 0 128
-0.019593 0.225089 -0.1515 128 0 128
0.524565 -0.101063 -0.0401288 128 0 128
-0.718451 -0.00792478 0.160484 128 0 128
0.405746 0.00740317 0.172365 128 0 128
-0.291127 0.404265 -0.124975 128 0 128
0.141495 -0.10486 -0.000565718 128 0 128
0.251201 -0.62359 -0.0303258 128 0 128
0.651195 -0.312465 -0.0247684 128 0 128
-0.914266 -0.0520074 -0.0133443 128 0 128
-0.267126 -0.0937778 -0.0785585 128 0 128
0.633491 0.0438375 0.0820618 128 0 128
0.396941 -0.0933917 0.000347145 128 0 128
-0.576976 -0.0941912 -0.00725833 128 0 128
-0.153007 -0.36142 -0.123945 128 0 128
0.632652 0.251306 -0.0414004 128 0 128
0.301783 -0.0381201 0.150613 128 0 128
-0.126593 0.00866262 0.113769 128 0 128
-0.584001 -0.107292 0.0407448 128 0 128
0.802772 -0.00184739 0.252176 128 0 128
-0.0867292 -0.155916 -0.0666074 128 0 128
0.271522 -0.102157 -0.0472413 128 0 128
0.473894 0.0882285 -0.0479897 128 0 128
0.711768 -0.0495005 -0.001966 128 0 128
0.427955 0.00442679 0.0914674 128 0 128
0.392961 -0.00949789 -0.12214 128 0 128
0.018039 -0.259953 -0.0554031 128 0 128
-0.354946 0.0229653 -0.0806697 128 0 128
0.698014 0.0199381 0.071716 128 0 128
-1.01901 0.0330493 0.125406 128 0 128
0.0879945 0.0540765 0.0834747 128 0 128
0.360264 -0.0300889 -0.119958 128 0 128
-0.69196 -0.0823006 -0.0175447 128 0 128
0.711054 -0.0103615 0.259215 128 0 128
0.571705 -0.021749 -0.0881966 128 0 128
-0.691249 0.0723907 -0.0283532 128 0 128
0.312689 -0.0719832 0.0491849 128 0 128
0.0159331 -0.106356 -0.006605 128 0 128
-0.0810147 -0.144507 -0.026133 128 0 128
-0.107268 0.139652 -0.0683331 128 0 128
0.71785 0.0151691 0.209824 128 0 128
0.070077 -0.470572 -0.0166514 128 0 128
0.252531 0.852614 -0.0122561 128 0 128
0.266898 -0.838966 -0.0110947 128 0 128
0.659743 -0.0286516 0.0789857 128 0 128
-0.124155 0.391326 -0.0549941 128 0 128
-0.12191 -0.360572 -0.108544 128 0 128
-0.255931 0.33462 -0.0680595 128 0 128
-0.0226425 0.306684 -0.0474473 128 0 128
0.113959 -0.0066261 0.0947863 128 0 128
0.0874399 -0.547045 -0.0116927 128 0 128
-0.153877 0.405579 -0.124774 128 0 128
0.0435744 0.228387 -0.0602874 128 0 128
-0.0853796 0.212786 -0.173892 128 0 128
-0.488223 -0.0494426 0.13061 128 0 128
0.520558 0.0067523 0.185773 128 0 128
-0.478935 -0.0100382 -0.0724848 128 0 128
0.148083 0.0863902 -0.112856 128 0 128
0.207881 -0.0250666 0.0846403 128 0 128
0.324131 0.0102358 0.0940938 128 0 128
0.720322 -0.328957 -0.0338234 128 0 128
0.084045 0.354651 -0.0317989 128 0 128
-0.221593 0.112973 -0.0649242 128 0 128
0.731726 -0.36674 -0.0337056 128 0 128
0.579945 -0.0153661 -0.00655257 128 0 128
0.290799 0.776974 -0.0194801 128 0 128
0.0115716 0.0926372 -0.103687 128 0 128
-0.956014 0.0841577 0.080625 128 0 128
-0.447767 -0.0910996 -0.0248796 128 0 128
0.676578 0.0402647 0.0432739 128 0 128
0.133802 -0.652273 -0.00972145 128 0 128
0.490029 0.0459737 0.111119 128 0 128
0.000263344 0.0802396 0.0692601 128 0 128
-0.603248 -0.0102321 -0.0626734 128 0 128
-0.686184 0.106749 0.059386 128 0 128
-0.809098 0.0510369 0.151911 128 0 128
-0.626685 0.0792515 0.118752 128 0 128
-0.81835 -0.100858 0.0329585 128 0 128
0.774799 -0.401073 -0.0415046 128 0 128
0.00720672 0.0470304 0.0930296 128 0 128
-0.893914 -0.0263156 -0.0294989 128 0 128
-0.0475004 -0.215855 -0.122861 128 0 128
-0.640616 0.0161897 0.153246 128 0 128
-0.798595 -0.0306269 -0.0712274 128 0 128
-0.976183 -0.041274 -0.00454675 128 0 128
-0.311081 -0.353067 -0.0470705 128 0 128
0.784789 0.00228646 -0.0442187 128 0 128
-0.422392 0.0888202 -0.070941 128 0 128
-0.898687 -0.0863331 0.108391 128 0 128
-0.207035 -0.145804 -0.00695808 128 0 128
0.659571 0.224248 -0.0440232 128 0 128
-0.549216 -0.0101478 -0.0669378 128 0 128
0.0878499 0.157756 -0.0624691 128 0 128
-0.180497 -0.432263 -0.0890654 128 0 128
-1.05699 -0.04955 0.0746576 128 0 128
0.703192 0.392517 -0.0396024 128 0 128
0.78318 0.025531 0.00703389 128 0 128
-0.0744435 -0.258897 -0.0515146 128 0 128
0.545067 0.0737495 -0.0527024 128 0 128
0.213078 -0.800649 -0.0173643 128 0 128
-0.821157 -0.104562 0.0646782 128 0 128
0.104857 0.424883 -0.0285349 128 0 128
0.246271 -0.842298 -0.011954 128 0 128
0.00575079 0.244628 -0.0575048 128 0 128
-0.477988 0.0804834 -0.0383647 128 0 128
0.573264 0.0453235 0.0612478 128 0 128
-0.180347 0.370638 -0.133313 128 0 128
0.160005 -0.421632 -0.0430147 128 0 128
0.687982 -0.0877177 -0.0460866 128 0 128
-0.147793 0.255689 -0.00666778 128 0 128
-0.854022 0.0505167 -0.0258357 128 0 128
-0.0694577 0.209011 -0.021672 128 0 128
0.473309 -0.00532443 0.185492 128 0 128
-0.860354 -0.0921733 0.102097 128 0 128
-0.570327 -0.100771 0.0768601 128 0 128
-0.901831 0.0388022 0.15237 128 0 128
-0.192313 0.0603591 -0.0919051 128 0 128
0.686831 0.0164107 0.228623 128 0 128
0.551121 0.094029 -0.0429511 128 0 128
0.524037 0.0324767 0.169346 128 0 128
0.561934 0.0660559 0.0261358 128 0 128
-0.520674 0.0044318 0.145008 128 0 128
-0.234486 0.367054 -0.134156 128 0 128
0.0457818 -0.0843396 -0.109676 128 0 128
0.37407 -0.0972874 -0.0137164 128 0 128
0.260232 0.0959652 -0.073258 128 0 128
-0.175859 -0.0801954 -0.0929858 128 0 128
0.418085 0.0408514 0.110749 128 0 128
-0.855165 -0.0642552 -0.0159008 128 0 128
-0.175608 -0.087925 0.0708232 128 0 128
0.171912 0.690088 -0.0112599 128 0 128
-0.00619659 0.13071 -0.0725976 128 0 128
-0.307858 -0.356462 -0.106709 128 0 128
-0.211639 0.140889 -0.0608983 128 0 128
-0.239577 -0.118755 -0.00579744 128 0 128
0.137255 0.478134 -0.0402268 128 0 128
-0.287258 0.094961 -0.0769928 128 0 128
-0.140328 0.2387 -0.0504889 128 0 128
0.120505 -0.302193 -0.0505448 128 0 128
0.40851 0.0501965 0.147215 128 0 128
-0.0821542 -0.209109 -0.171486 128 0 128
-0.104291 -0.227644 -0.0138533 128 0 128
0.0724824 0.505133 -0.0355192 128 0 128
0.119013 0.277505 -0.0529061 128 0 128
0.630068 -0.0303479 0.0194261 128 0 128
-0.0202457 0.225188 -0.178833 128 0 128
0.0473065 0.510793 -0.00995983 128 0 128
0.174519 -0.0695788 -0.112716 128 0 128
-0.0356346 0.207464 -0.0279525 128 0 128
-0.813745 -0.0131306 -0.124302 128 0 128
0.278828 -0.082296 0.0406339 128 0 128
0.195945 -0.104075 0.000473317 128 0 128
0.599597 -0.0245454 0.138051 128 0 128
0.0228731 -0.135045 -0.0488786 128 0 128
0.320333 -0.838682 -0.0229157 128 0 128
0.217577 -0.104042 -0.00123404 128 0 128
0.258462 0.760623 -0.0164544 128 0 128
-0.247754 0.347633 -0.0455346 128 0 128
0.249921 0.67571 -0.0246675 128 0 128
0.094248 0.134566 -0.0682877 128 0 128
-0.824305 0.0100031 0.164323 128 0 128
0.427977 -0.0392232 0.11376 128 0 128
-0.209525 0.435993 -0.0916965 128 0 128
-0.0109367 -0.194898 -0.135279 128 0 128
0.580896 0.00978835 -0.0893271 128 0 128
-0.276995 0.428887 -0.0534685 128 0 128
-0.209619 -0.428409 -0.110742 128 0 128
-0.169135 0.372856 -0.0390032 128 0 128
0.30852 -0.759901 -0.023598 128 0 128
0.748889 -0.0422326 -0.00555873 128 0 128
-0.0814363 -0.378708 -0.0061089 128 0 128
0.684252 -0.0531434 0.00901344 128 0 128
-0.00745836 0.0989376 0.040426 128 0 128
0.21168 -0.676452 -0.0173696 128 0 128
0.208541 0.00918548 0.0873186 128 0 128
-0.0166212 -0.128807 -0.0725453 128 0 128
-0.791788 -0.0355763 -0.0422726 128 0 128
-0.570506 0.0265291 0.145733 128 0 128
0.0669218 -0.275477 -0.054043 128 0 128
-0.0326243 0.0849883 0.0655958 128 0 128
0.686495 0.22429 -0.044774 128 0 128
0.546669 -0.0310581 0.0379655 128 0 128
-0.111244 0.0659056 -0.0983041 128 0 128
-0.14906 0.0550066 -0.0953182 128 0 128
0.668171 -0.0138484 0.197498 128 0 128
0.663589 -0.0480957 0.0256502 128 0 128
0.157008 -0.693037 -0.0240868 128 0 128
0.525554 -0.0535311 -0.0800362 128 0 128
0.048295 0.120295 -0.0737874 128 0 128
0.59397 -0.0413643 0.0486242 128 0 128
0.703479 -0.171584 -0.0420331 128 0 128
-0.609443 0.0560484 0.135952 128 0 128
-0.0659062 0.107916 -0.00548878 128 0 128
-1.0391 -0.0265421 0.116166 128 0 128
-0.814603 0.101648 0.0857023 128 0 128
0.407393 0.0203347 -0.11917 128 0 128
0.401146 0.098665 -0.015035 128 0 128
0.0785216 0.597442 -0.0270796 128 0 128
0.0700929 -0.492572 -0.0143428 128 0 128
-0.350376 -0.105428 0.0382352 128 0 128
-0.843193 0.0728237 0.134687 128 0 128
0.316038 -0.0249179 0.0760158 128 0 128
-0.370603 0.0438109 -0.0778315 128 0 128
-0.0275653 -0.384124 -0.01036 128 0 128
-1.05107 -0.00852973 0.11104 128 0 128
-0.246803 0.0466341 0.113077 128 0 128
0.344852 0.0203872 0.0823116 128 0 128
0.637243 0.187313 -0.0277013 128 0 128
0.235051 0.597486 -0.0354212 128 0 128
0.473296 -0.0780026 -0.0626677 128 0 128
-0.332798 -0.0741302 0.10016 128 0 128
0.354697 -0.0380975 0.175397 128 0 128
0.511162 0.0623566 -0.0796168 128 0 128
0.520163 -0.15757 -0.0271052 128 0 128
0.365511 0.0334893 -0.119577 128 0 128
-0.0767561 0.1955 -0.159022 128 0 128
-0.0915809 0.0800863 0.0765089 128 0 128
-0.0629075 0.043201 0.100113 128 0 128
-0.15378 0.37518 -0.128589 128 0 128
-0.966211 0.0152117 0.148336 128 0 128
-0.695921 -0.0949868 0.00192884 128 0 128
0.0885141 -0.0411028 0.0881771 128 0 128
-0.0361989 0.126063 -0.0377283 128 0 128
-0.994302 0.0765279 0.063074 128 0 128
0.651549 -0.00997441 0.0162035 128 0 128
-0.157513 0.157773 -0.0623636 128 0 128
0.694916 -0.115397 -0.0451961 128 0 128
0.114953 0.105899 0.0117348 128 0 128
-0.231782 0.334858 -0.100159 128 0 128
0.579062 0.223823 -0.0371574 128 0 128
0.558979 0.0357412 -0.0868983 128 0 128
-0.028393 0.445675 -0.00698655 128 0 128
-0.514138 0.084797 -0.0285906 128 0 128
0.0340336 0.387573 -0.0471155 128 0 128
-0.0724023 -0.216394 -0.0199827 128 0 128
0.0509851 0.0444686 -0.111105 128 0 128
-0.178424 0.345941 -0.115406 128 0 128
-0.16542 -0.00954905 -0.097229 128 0 128
0.238725 -0.0671185 0.0602682 128 0 128
-0.892449 -0.0976134 0.0651881 128 0 128
-0.222718 0.427772 -0.0536394 128 0 128
0.0995425 0.0391444 -0.114937 128 0 128
0.442139 0.093889 -0.0104756 128 0 128
-1.04391 -0.0503196 0.0916115 128 0 128
-0.27703 0.153287 -0.0479147 128 0 128
0.0181965 0.229048 -0.0361158 128 0 128
-0.787643 -0.0951799 0.00906773 128 0 128
-0.668808 0.104676 0.0736032 128 0 128
-0.169911 -0.346546 -0.0558057 128 0 128
0.0522102 -0.1029 -0.0349476 128 0 128
0.0418847 -0.358816 -0.0246718 128 0 128
0.322631 -0.0463176 0.15913 128 0 128
0.752324 0.0119179 0.29959 128 0 128
0.246323 0.00924442 0.0843366 128 0 128
-0.572422 -0.034564 0.143127 128 0 128
0.701742 -0.011826 0.211099 128 0 128
-0.175281 0.0123957 0.117109 128 0 128
-0.413683 -0.0755264 -0.0744168 128 0 128
-0.102695 0.222959 -0.0557643 128 0 128
-0.016571 -0.405707 -0.0100213 128 0 128
-0.0530893 -0.105164 0.0147919 128 0 128
0.730723 0.327459 -0.0365009 128 0 128
0.703674 0.273217 -0.0345801 128 0 128
-0.0966009 -0.221132 -0.0560901 128 0 128
0.49333 0.00180481 0.185114 128 0 128
-0.0625487 0.0863916 -0.101147 128 0 128
-0.778619 0.0837345 0.124403 128 0 128
-0.237253 -0.182951 -0.0488056 128 0 128
0.687957 0.0166025 0.174266 128 0 128
0.321607 0.0321309 0.0739893 128 0 128
0.255112 -0.777784 -0.0143249 128 0 128
-0.135982 -0.302793 -0.00562504 128 0 128
0.148465 0.0227608 0.0902628 128 0 128
0.122127 -0.0581704 0.0765114 128 0 128
-0.269895 0.0797981 0.0906024 128 0 128
0.451151 -0.0907772 -0.0232215 128 0 128
0.0905591 -0.39544 -0.0289102 128 0 128
-0.827923 -0.0647327 -0.0202577 128 0 128
-0.775405 0.00728739 0.164885 128 0 128
0.326819 -0.0142211 -0.125245 128 0 128
-0.594732 -0.0816089 -0.0248172 128 0 128
0.137815 -0.00319788 0.0933515 128 0 128
0.704047 0.0120676 0.102237 128 0 128
-0.153618 -0.140621 -0.0140837 128 0 128
0.489684 0.0789131 -0.0641811 128 0 128
-0.197806 0.0354006 0.113552 128 0 128
0.772936 -0.00629193 0.287132 128 0 128
0.010988 0.329337 -0.0225189 128 0 128
-0.0161528 -0.166806 -0.0673614 128 0 128
0.437331 0.0193215 0.158446 128 0 128
-1.03385 -0.060734 0.0447459 128 0 128
-0.105343 -0.0878754 0.0651873 128 0 128
0.0303722 0.413467 -0.0167365 128 0 128
-0.225199 -0.241833 -0.0135375 128 0 128
-0.343418 -0.0645768 -0.0799637 128 0 128
-0.112757 0.288044 -0.0444455 128 0 128
0.564366 -0.0255804 0.069119 128 0 128
-0.590235 0.107098 0.0358939 128 0 128
0.427137 0.0367656 0.175789 128 0 128
-0.305627 -0.0699379 -0.0829457 128 0 128
-0.263477 -0.195392 -0.0165408 128 0 128
-0.761108 -0.0895285 -0.00285771 128 0 128
-0.849837 0.100893 0.0510672 128 0 128
-0.118145 0.0924348 -0.0934494 128 0 128
-0.239949 0.120045 -0.00579751 128 0 128
0.0507034 -0.302202 -0.0503522 128 0 128
-0.278429 -0.113715 -0.00483813 128 0 128
0.611477 -0.0159869 0.169272 128 0 128
-0.238117 -0.145653 -0.056466 128 0 128
-0.0825594 -0.0750598 0.0784442 128 0 128
-1.04248 -0.0299774 0.0110165 128 0 128
0.547073 0.0507527 0.0434306 128 0 128
-0.467378 -0.0593702 -0.0655666 128 0 128
-0.35988 0.0814177 -0.0784819 128 0 128
-0.749857 0.104549 0.0799899 128 0 128
-0.0159703 0.107794 0.00646933 128 0 128
0.493833 -0.0448505 0.119397 128 0 128
-0.3911 0.0153489 -0.0788184 128 0 128
-0.0286936 0.205775 -0.0956081 128 0 128
-0.192446 -0.00959121 -0.0950959 128 0 128
0.606229 -0.214835 -0.0409628 128 0 128
0.506197 0.0447089 0.0947967 128 0 128
-0.137471 -0.0930155 -0.0892931 128 0 128
-0.26431 0.184007 -0.0107039 128 0 128
0.0595422 0.529613 -0.0324947 128 0 128
0.091733 -0.638439 -0.0226532 128 0 128
-0.0046024 -0.513689 -0.00794328 128 0 128
0.163776 -0.0954155 -0.062512 128 0 128
-0.0433187 0.0196515 -0.105766 128 0 128
-0.291931 -0.153137 -0.0139994 128 0 128
0.522208 0.0469939 0.147731 128 0 128
0.617932 -0.285017 -0.0364208 128 0 128
0.126025 -0.239985 -0.0569065 128 0 128
-0.972347 -0.082748 0.0711913 128 0 128
-0.120397 -0.210669 -0.0126845 128 0 128
-0.212857 -0.0954132 -0.0797318 128 0 128
-0.901112 0.0914833 0.0938854 128 0 128
0.63942 0.0668667 -0.0177569 128 0 128
0.74653 0.403084 -0.0418906 128 0 128
0.415342 -0.077073 0.0304507 128 0 128
-0.439252 -0.0380462 0.131077 128 0 128
0.671047 0.132266 -0.0377052 128 0 128
0.699132 0.13481 -0.0452989 128 0 128
-0.21764 -0.205321 -0.00511063 128 0 128
-0.864371 -0.0398995 0.155181 128 0 128
0.584196 -0.16057 -0.041979 128 0 128
0.68561 0.00393084 0.287904 128 0 128
-0.548874 0.0265528 0.144027 128 0 128
-0.100077 -0.361238 -0.10455 128 0 128
-0.0131332 0.204799 -0.0662412 128 0 128
-0.975246 -0.0808625 0.0497527 128 0 128
0.51495 0.153723 -0.0259999 128 0 128
0.188356 -0.513988 -0.0326017 128 0 128
-0.777558 -0.0981041 0.10121 128 0 128
-0.469081 -0.0855128 0.0966235 128 0 128
-0.408501 -0.0987984 -0.00921952 128 0 128
0.708455 0.219025 -0.0449818 128 0 128
0.016371 0.552945 -0.00962999 128 0 128
-0.125065 0.157824 -0.0645233 128 0 128
-0.29435 -0.0915503 -0.0790182 128 0 128
0.762872 -0.00380067 0.168556 128 0 128
-0.357799 -0.0975093 -0.0289701 128 0 128
-0.726975 0.0426649 -0.0443883 128 0 128
0.380757 -0.0334169 0.138361 128 0 128
0.0672685 0.379924 -0.0443209 128 0 128
0.000350468 0.18002 -0.066199 128 0 128
-0.877577 0.04192 -0.0257811 128 0 128
-0.281465 -0.0965902 0.0612635 128 0 128
-0.00278222 -0.205286 -0.0347074 128 0 128
0.610649 0.0725019 -0.0466435 128 0 128
-0.175755 -0.0153751 0.116397 128 0 128
-0.26843 0.436401 -0.0871477 128 0 128
0.567461 0.131905 -0.0423394 128 0 128
0.128897 0.0985503 -0.0862652 128 0 128
0.019284 0.40645 -0.0404367 128 0 128
-0.209709 -0.391609 -0.0239701 128 0 128
0.507305 -0.0365995 0.0805453 128 0 128
0.82872 0.00119003 0.0319531 128 0 128
-0.291215 -0.414936 -0.040606 128 0 128
0.154626 0.678761 -0.0258738 128 0 128
-0.188563 0.068865 0.0934333 128 0 128
0.1323 0.570226 -0.0338284 128 0 128
0.0411179 -0.454017 -0.0375397 128 0 128
-0.293884 0.109861 -0.00304412 128 0 128
-0.300937 0.35315 -0.0418394 128 0 128
0.104996 0.176783 -0.0647275 128 0 128
-0.0819429 -0.319309 -0.00868434 128 0 128
-0.900574 -0.0161059 0.15958 128 0 128
0.728563 -0.00983419 0.209082 128 0 128
-0.923307 0.0512287 0.142327 128 0 128
0.654773 0.0122407 0.241786 128 0 128
-0.0137306 0.0225077 0.103064 128 0 128
0.184765 0.0635974 0.0693057 128 0 128
0.177184 0.651996 -0.015112 128 0 128
0.54497 0.00516133 0.0108005 128 0 128
-0.988508 0.0305669 0.138116 128 0 128
0.0032424 0.353625 -0.0185 128 0 128
-0.296928 -0.368145 -0.0459789 128 0 128
-0.235057 -0.330648 -0.0899879 128 0 128
-0.953414 -0.0615585 0.0051945 128 0 128
-0.291792 -0.106436 0.0229986 128 0 128
0.0451037 0.44009 -0.0392687 128 0 128
-0.222198 -0.129028 -0.0617369 128 0 128
0.356639 0.0390456 0.178645 128 0 128
0.0219456 -0.524847 -0.00732881 128 0 128
-0.0205105 0.177987 -0.179308 128 0 128
-0.641679 0.0526081 0.140503 128 0 128
-0.800023 -0.106129 0.0578945 128 0 128
0.217433 -0.0800318 -0.0966414 128 0 128
0.389445 0.0565067 -0.106924 128 0 128
0.00151167 0.136622 -0.0447184 128 0 128
-0.0120764 0.465201 -0.0324517 128 0 128
-0.294973 0.0656189 -0.0838034 128 0 128
-0.39711 -0.0649405 0.112889 128 0 128
-0.149797 0.0535155 0.101972 128 0 128
0.368105 -0.858308 -0.0229922 128 0 128
0.0720216 0.423932 -0.0416921 128 0 128
0.730786 -0.274641 -0.0399725 128 0 128
0.587864 0.0313963 0.00193486 128 0 128
0.172419 -0.535813 -0.0265262 128 0 128
-0.709223 0.0886527 0.112817 128 0 128
-0.188911 -0.103176 0.0396051 128 0 128
0.478274 -0.0191648 -0.10901 128 0 128
0.623284 -0.0568086 0.0219209 128 0 128
-0.812769 0.0940112 0.106253 128 0 128
0.0967591 -0.611231 -0.0270657 128 0 128
-0.788305 0.0388592 -0.0411524 128 0 128
-0.337997 0.0166118 0.128861 128 0 128
0.564832 0.0425304 0.13864 128 0 128
0.526884 0.00880812 0.0257494 128 0 128
0.313302 0.745509 -0.028575 128 0 128
-0.397736 0.0546186 -0.0756914 128 0 128
-0.316771 0.0107048 -0.0852861 128 0 128
0.553221 0.00189322 0.0949426 128 0 128
0.655125 -0.0113588 0.230527 128 0 128
-0.341192 0.107887 0.0215546 128 0 128
0.174513 -0.74151 -0.00914179 128 0 128
0.401518 0.0475356 0.127203 128 0 128
-0.721045 0.0868942 -0.00905076 128 0 128
-0.113931 -0.393159 -0.0645315 128 0 128
0.021206 -0.427348 -0.0135018 128 0 128
0.6871 -0.00956891 0.108242 128 0 128
0.539991 0.0455316 -0.0858022 128 0 128
-0.145426 -0.0340278 0.109733 128 0 128
0.717282 -0.0089718 0.160218 128 0 128
0.527361 0.0841419 -0.0429804 128 0 128
-0.0736152 0.0060142 -0.105179 128 0 128
-0.0787812 0.0442662 -0.100864 128 0 128
0.562231 -0.0171038 0.00537832 128 0 128
0.793918 -0.0223523 0.00105643 128 0 128
0.37255 0.0789104 0.0378714 128 0 128
0.0435615 -0.514014 -0.00903617 128 0 128
-0.391906 -0.0182624 -0.0782491 128 0 128
0.581792 0.0301668 0.148658 128 0 128
-0.0605933 0.179525 -0.139732 128 0 128
0.612989 0.0126954 -0.081729 128 0 128
0.156992 0.108064 -0.00717172 128 0 128
-0.0661807 -0.286685 -0.0138445 128 0 128
0.150454 0.0875939 0.0481166 128 0 128
-0.770376 -0.0265928 0.161848 128 0 128
0.514847 0.0410023 -0.0943498 128 0 128
-0.119304 -0.324967 -0.00603588 128 0 128
0.138253 0.657236 -0.0265851 128 0 128
-0.232097 0.189457 -0.0485564 128 0 128
0.621813 -0.106411 -0.0459879 128 0 128
0.503231 -0.100896 -0.0371711 128 0 128
-0.866205 0.0799977 0.00340985 128 0 128
0.276319 0.0755203 0.0526391 128 0 128
-0.0343089 0.106566 -0.0186154 128 0 128
0.624939 -0.146306 -0.0275116 128 0 128
0.12469 0.457014 -0.0422418 128 0 128
-0.0300102 -0.0532478 -0.104701 128 0 128
-0.047522 -0.225155 -0.174919 128 0 128
0.355769 -0.098116 -0.0384431 128 0 128
-0.103273 -0.0614321 0.0920645 128 0 128
0.100879 -0.470424 -0.0394455 128 0 128
-0.787127 0.0452111 0.15438 128 0 128
0.0602736 0.610514 -0.0216285 128 0 128
-0.905628 0.00986622 0.159605 128 0 128
0.0890018 0.554059 -0.0324154 128 0 128
0.720126 -0.00898733 0.286486 128 0 128
-0.926778 0.0376432 -0.0175841 128 0 128
0.766764 -0.00566158 0.211483 128 0 128
-0.259854 0.129714 -0.0569913 128 0 128
-0.0424002 0.066323 0.0848569 128 0 128
-0.616818 0.0846368 -0.0204865 128 0 128
-0.177843 0.112442 -0.0681765 128 0 128
0.240797 -0.0459353 -0.118953 128 0 128
-0.240894 0.0861133 -0.087071 128 0 128
-0.74198 0.106162 0.042554 128 0 128
-0.231391 -0.357242 -0.037711 128 0 128
0.307225 0.836699 -0.0160693 128 0 128
0.665259 0.332657 -0.0397108 128 0 128
-0.151329 0.107883 -0.0706697 128 0 128
0.137923 -0.0363558 -0.11565 128 0 128
0.122764 0.559811 -0.0163226 128 0 128
-0.138035 0.392404 -0.0211974 128 0 128
-0.208345 -0.0535261 -0.0906257 128 0 128
0.181099 0.0440816 -0.116058 128 0 128
-0.646087 -0.0262889 0.151728 128 0 128
0.128819 0.520721 -0.0217109 128 0 128
0.0841649 0.418951 -0.0251958 128 0 128
0.480677 -0.032561 0.0978336 128 0 128
0.598187 -0.0531077 -0.0595877 128 0 128
0.0983917 -0.177428 -0.0613538 128 0 128
0.588615 -0.0764327 -0.0224566 128 0 128
0.235562 0.641087 -0.0331598 128 0 128
-0.0514954 0.179139 -0.181176 128 0 128
-0.00627825 -0.133491 -0.0432677 128 0 128
-0.0218234 -0.349515 -0.0424154 128 0 128
-0.500174 0.0753788 -0.0412273 128 0 128
0.587955 -0.0538237 0.0319011 128 0 128
-0.708314 -0.107086 0.0505562 128 0 128
-0.413725 -0.0484265 -0.0744168 128 0 128
0.299247 0.712887 -0.0293676 128 0 128
0.380887 -0.00990663 0.192586 128 0 128
0.682625 0.245784 -0.0323737 128 0 128
0.601707 -0.0213022 -0.0130944 128 0 128
-0.0784349 0.430697 -0.00965567 128 0 128
-1.04615 -0.0484131 0.030267 128 0 128
-0.750265 0.0950687 0.00599388 128 0 128
0.0671824 0.102324 0.02663 128 0 128
-0.835606 0.0887555 0.0087177 128 0 128
-0.0123547 0.3038 -0.0213756 128 0 128
0.189624 -0.00650806 0.0888145 128 0 128
0.577902 -0.0458693 0.0851662 128 0 128
0.647529 -0.0141407 0.118969 128 0 128
-0.720254 -0.0386446 0.153554 128 0 128
-0.925423 0.0282054 0.15319 128 0 128
0.535804 -0.034385 0.158244 128 0 128
0.596839 -0.18245 -0.0207653 128 0 128
-0.123498 0.377927 -0.0390949 128 0 128
0.263202 0.10703 -0.0366796 128 0 128
0.460924 0.0410083 0.101931 128 0 128
-0.15108 -0.103117 0.0366092 128 0 128
-0.299011 -0.0491474 0.115677 128 0 128
-0.74863 -0.0162789 0.161778 128 0 128
0.619032 -0.0458352 0.0546966 128 0 128
-0.550103 -0.0860392 0.103339 128 0 128
0.00135967 0.353422 -0.0436297 128 0 128
-0.920847 -0.00551661 -0.0271751 128 0 128
-0.292515 -0.389438 -0.0959785 128 0 128
0.132849 0.712427 -0.0164352 128 0 128
0.553056 -0.0621281 0.0267721 128 0 128
0.475484 -0.0402392 -0.101565 128 0 128
0.0250051 0.205058 -0.0405624 128 0 128
0.108882 -0.611512 -0.00946492 128 0 128
-0.06659 0.0973053 0.0488046 128 0 128
0.788691 -0.00243537 0.209752 128 0 128
0.0240222 0.305157 -0.0281589 128 0 128
-0.0570316 -0.03704 -0.10257 128 0 128
-0.309494 0.126236 -0.0454494 128 0 128
0.474673 -0.0295203 0.128591 128 0 128
-0.230646 0.39216 -0.0236182 128 0 128
-0.21039 0.0719509 0.0927381 128 0 128
-0.0147367 0.369597 -0.0413582 128 0 128
0.217874 0.0907291 -0.0800457 128 0 128
-0.301274 -0.133151 -0.0455645 128 0 128
0.546106 -0.106529 -0.0418283 128 0 128
0.0126111 0.429239 -0.0381072 128 0 128
0.085479 -0.567848 -0.0305945 128 0 128
-0.0843057 -0.324113 -0.0404964 128 0 128
0.607218 0.0386965 -0.074255 128 0 128
-0.287322 0.434771 -0.0736192 128 0 128
0.0192617 0.100519 0.0345753 128 0 128
0.505391 -0.111593 -0.0151013 128 0 128
0.0566106 0.553908 -0.0297586 128 0 128
0.265221 -0.0667872 0.0579161 128 0 128
0.713901 0.365233 -0.0417182 128 0 128
0.0565375 -0.0639528 -0.11153 128 0 128
-0.0182381 -0.26511 -0.0245525 128 0 128
-0.472537 0.105182 0.010856 128 0 128
-0.380321 0.0987358 -0.0270162 128 0 128
0.137844 -0.088226 -0.111324 128 0 128
-0.550018 -0.00330199 0.14673 128 0 128
-0.993424 -0.0177408 -0.00900696 128 0 128
0.25071 -0.0408498 0.0753758 128 0 128
0.644095 -0.00333905 -0.0348893 128 0 128
-0.651656 -0.0743877 0.125968 128 0 128
0.702196 -0.139186 -0.0449451 128 0 128
0.130873 0.410524 -0.0436269 128 0 128
0.0520651 0.440501 -0.0171479 128 0 128
0.110485 -0.0299586 0.0909677 128 0 128
0.493908 -0.0304103 0.172734 128 0 128
0.692582 -0.214701 -0.0449594 128 0 128
0.132208 0.548626 -0.0354235 128 0 128
-0.069606 0.316111 -0.0430397 128 0 128
-0.485647 0.0393314 -0.0650397 128 0 128
0.0479276 0.573695 -0.026267 128 0 128
0.150241 0.733154 -0.0168073 128 0 128
-0.238445 0.224347 -0.0355208 128 0 128
0.311236 -0.0302453 0.18665 128 0 128
-0.0842267 0.0713677 -0.100437 128 0 128
-0.146806 0.0869802 0.0717685 128 0 128
-0.805929 0.00870469 -0.0718572 128 0 128
-0.235724 0.0109913 -0.0916828 128 0 128
-0.252989 0.106025 0.0358794 128 0 128
-0.286528 -0.340028 -0.0547277 128 0 128
-0.936611 -0.0410422 -0.0140899 128 0 128
0.0345669 0.173573 -0.0471312 128 0 128
-0.486207 0.107061 0.0435928 128 0 128
-1.05871 0.0278274 0.0963805 128 0 128
0.54454 0.0349787 0.0720405 128 0 128
0.196103 -0.0857451 -0.0975653 128 0 128
-0.165148 0.131662 -0.0132073 128 0 128
0.648974 -0.0317685 -0.00287038 128 0 128
-0.0519353 0.185838 -0.0273654 128 0 128
-0.0986725 -0.0107548 0.111068 128 0 128
-0.476745 -0.0712748 0.114189 128 0 128
0.0675541 -0.0881057 -0.109688 128 0 128
0.641477 0.0181899 0.134449 128 0 128
0.228778 0.0770761 -0.0997631 128 0 128
0.827581 0.0209103 -0.0291111 128 0 128
0.812624 -0.00271012 -0.0411586 128 0 128
0.627513 -0.0214519 0.121964 128 0 128
0.0902631 0.43996 -0.0237738 128 0 128
0.77363 -0.00167682 0.365921 128 0 128
-0.57314 -0.00724807 0.148552 128 0 128
-0.836649 -0.0253563 -0.0423445 128 0 128
0.00180295 0.202022 -0.0359221 128 0 128
-0.116731 0.035527 0.107153 128 0 128
0.660457 0.0830596 -0.0470249 128 0 128
-0.119605 0.311433 -0.0394942 128 0 128
-0.290732 -0.100335 -0.060043 128 0 128
0.650811 -0.252866 -0.0259091 128 0 128
-0.253323 -0.207576 -0.0342933 128 0 128
0.171473 0.438987 -0.0421201 128 0 128
-1.06333 -0.0263999 0.0176769 128 0 128
-0.145987 -0.172009 -0.0606245 128 0 128
0.539578 0.038741 0.156673 128 0 128
0.272303 -0.0405961 0.073174 128 0 128
0.726069 -0.393649 -0.0410902 128 0 128
0.110488 -0.0842187 -0.114682 128 0 128
0.731146 0.25266 -0.0440584 128 0 128
0.030394 0.386067 -0.0195435 128 0 128
0.00839835 -0.248768 -0.0311708 128 0 128
0.727732 -0.234646 -0.0435682 128 0 128
0.416466 0.0598189 -0.100029 128 0 128
0.415677 -0.0157024 0.165556 128 0 128
-0.797477 -0.0939452 0.109453 128 0 128
-0.0683009 -0.118988 -0.0320548 128 0 128
-0.579427 0.0888552 0.102572 128 0 128
0.102791 0.0828296 0.057998 128 0 128
-0.284137 -0.0303342 0.121493 128 0 128
-0.37454 0.0933849 0.0804328 128 0 128
-0.122008 0.0387987 -0.0974512 128 0 128
-0.577281 0.105519 0.0614541 128 0 128
-0.669038 0.0589254 0.138418 128 0 128
0.0855946 -0.589848 -0.0282937 128 0 128
-0.0915473 -0.383924 -0.116655 128 0 128
0.649252 0.017682 0.0308562 128 0 128
0.71987 0.0115272 0.0701225 128 0 128
0.278306 0.694754 -0.0408533 128 0 128
-0.606676 0.0910527 0.101794 128 0 128
-0.863912 -0.0831089 0.00635866 128 0 128
0.550021 -0.0375829 -0.0861823 128 0 128
-0.627184 0.107341 0.049443 128 0 128
0.640841 -0.0380911 0.0782517 128 0 128
0.571324 -0.0637497 -0.0544569 128 0 128
0.0941638 0.086626 -0.113515 128 0 128
0.650303 0.0189537 -0.0117186 128 0 128
-0.240721 -0.0752566 -0.0880678 128 0 128
-0.963364 0.00404308 -0.0179023 128 0 128
0.618105 0.293784 -0.0354928 128 0 128
-0.750266 0.0617187 0.142591 128 0 128
0.471303 0.0551345 0.0481563 128 0 128
0.00862318 -0.199168 -0.172232 128 0 128
0.769856 0.0395502 -0.00645129 128 0 128
-0.158908 0.174371 -0.0101941 128 0 128
0.0717057 -0.188969 -0.052726 128 0 128
-0.48373 -0.0387857 -0.0651813 128 0 128
-1.02058 -0.0657432 0.0882472 128 0 128
0.77673 0.00360793 0.0799301 128 0 128
-0.104719 -0.194645 -0.0168329 128 0 128
-0.294123 -0.15524 -0.0380011 128 0 128
-1.09804 0.00424799 0.080499 128 0 128
-0.0440341 0.136351 -0.0712169 128 0 128
-0.193212 0.177418 -0.0562382 128 0 128
-0.0949913 -0.39483 -0.0848846 128 0 128
-0.653827 0.0663591 -0.0360206 128 0 128
-0.516264 -0.0146864 -0.0689361 128 0 128
-0.0410773 0.445055 -0.0314643 128 0 128
-0.0747063 0.380303 -0.0447516 128 0 128
-0.259245 -0.339586 -0.0534705 128 0 128
-0.703682 0.106921 0.0448477 128 0 128
0.725116 0.305851 -0.0367979 128 0 128
0.562878 0.0183773 0.0816395 128 0 128
-0.0671351 0.214515 -0.139822 128 0 128
-0.417619 -0.0380125 0.12937 128 0 128
-0.101264 0.105561 0.0287998 128 0 128
0.665423 -0.149743 -0.0459034 128 0 128
-0.99736 -0.068097 0.0316349 128 0 128
0.618762 -0.0324856 -0.0717467 128 0 128
0.0791912 -0.470558 -0.038436 128 0 128
-0.200258 0.408907 -0.131145 128 0 128
0.208811 -0.515256 -0.0378271 128 0 128
0.0149388 -0.351658 -0.0202388 128 0 128
-0.492186 -0.107149 0.0334983 128 0 128
-0.767752 -0.0562888 0.148751 128 0 128
0.746244 -0.323617 -0.0433632 128 0 128
-0.0677197 -0.362287 -0.0378887 128 0 128
-0.0130628 0.498799 -0.0277637 128 0 128
0.0648656 0.15822 -0.0689809 128 0 128
0.21353 0.543853 -0.0346189 128 0 128
-0.148943 0.338387 -0.00969683 128 0 128
0.681675 0.359683 -0.0396254 128 0 128
0.449297 -0.06034 -0.0918721 128 0 128
0.824594 -0.00767043 -0.000162795 128 0 128
0.629573 -0.00346372 -0.0778197 128 0 128
-0.730483 -0.0752807 -0.02253 128 0 128
-0.971 -0.0343858 0.141327 128 0 128
0.0870424 0.316855 -0.0390526 128 0 128
0.558574 0.180691 -0.0179907 128 0 128
0.424889 0.0934821 -0.0498403 128 0 128
-0.0386326 -0.112341 -0.0744213 128 0 128
0.147675 -0.0516606 0.0787875 128 0 128
0.289108 -0.09604 -0.0619713 128 0 128
0.292836 -0.735925 -0.0235669 128 0 128
-0.189364 0.0846238 0.078127 128 0 128
0.0932028 -0.345936 -0.0490868 128 0 128
0.214465 0.701354 -0.0158536 128 0 128
0.138239 -0.712866 -0.0169856 128 0 128
0.35417 -0.821029 -0.0246957 128 0 128
0.34548 -0.090922 -0.065719 128 0 128
-0.215792 0.404383 -0.0366288 128 0 128
0.362798 0.0658052 0.051312 128 0 128
0.609205 -0.0679205 -0.00416093 128 0 128
0.693659 -0.285499 -0.0314436 128 0 128
-0.0489594 -0.394858 -0.0073661 128 0 128
0.639984 0.0490476 0.0525849 128 0 128
-0.167053 -0.204542 -0.0536414 128 0 128
0.331998 0.0401571 0.119379 128 0 128
-1.00629 -0.0367009 0.130059 128 0 128
0.390981 0.0288792 0.163637 128 0 128
0.0764463 -0.589862 -0.00821166 128 0 128
0.422432 0.0967982 -0.0173567 128 0 128
0.162477 0.0756827 0.0616742 128 0 128
0.681678 0.197483 -0.0351619 128 0 128
-0.399921 -0.106405 0.0218026 128 0 128
0.000964496 0.211921 -0.187427 128 0 128
0.575183 -0.155384 -0.0188187 128 0 128
-0.426646 -0.0956467 -0.0369783 128 0 128
-0.0857156 0.0924054 -0.0960089 128 0 128
-0.029761 0.234173 -0.0262125 128 0 128
-0.6866 0.083968 0.117211 128 0 128
0.161244 -0.57293 -0.0366738 128 0 128
-0.841452 0.0995064 0.0873702 128 0 128
0.0634143 0.107418 -0.0210118 128 0 128
0.595834 0.126849 -0.023573 128 0 128
0.254466 0.0730762 0.056591 128 0 128
0.209869 0.0876866 0.0434273 128 0 128
0.238911 -0.800609 -0.0205065 128 0 128
-0.230137 0.0548801 -0.0889191 128 0 128
0.714639 -0.0106459 0.237265 128 0 128
0.140836 -0.372962 -0.0447178 128 0 128
-0.00353651 -0.227487 -0.18451 128 0 128
0.223881 -0.0916517 0.033125 128 0 128
0.770964 0.0182519 0.0249615 128 0 128
0.505648 0.083248 -0.0473856 128 0 128
-0.163209 -0.315436 -0.00929268 128 0 128
-0.198172 0.27351 -0.0104178 128 0 128
-0.129803 0.0195166 -0.0989402 128 0 128
-0.202015 0.195904 -0.00549053 128 0 128
0.186199 0.53781 -0.0378778 128 0 128
-0.0544574 0.179634 -0.0647822 128 0 128
0.066769 0.277924 -0.0399555 128 0 128
0.583317 0.0658492 0.0225223 128 0 128
0.0461501 -0.0971791 -0.0849264 128 0 128
0.591765 0.0300424 0.0475154 128 0 128
-0.184862 -0.22167 -0.00548872 128 0 128
0.178617 0.104298 -0.0484607 128 0 128
-0.204455 -0.272 -0.0147697 128 0 128
-0.0975017 0.108167 0.00763782 128 0 128
-0.493769 0.105849 0.0176476 128 0 128
-0.277577 -0.140314 -0.00600552 128 0 128
-0.316571 0.0438952 -0.082096 128 0 128
0.135616 -0.60087 -0.0136828 128 0 128
0.262015 0.578729 -0.0360423 128 0 128
0.662217 0.0128722 -0.0680599 128 0 128
-0.0614471 -0.456677 -0.0219211 128 0 128
0.185933 0.0361392 0.0835673 128 0 128
-0.0225451 -0.117316 -0.0418856 128 0 128
0.0500639 -0.314603 -0.0307396 128 0 128
-0.468311 0.0424485 0.131794 128 0 128
-0.295548 -0.103942 0.0440892 128 0 128
-0.103749 -0.133643 -0.069179 128 0 128
-0.149039 0.0318066 0.111138 128 0 128
0.01149 -0.279863 -0.028201 128 0 128
0.654873 0.159441 -0.0323795 128 0 128
-0.544495 0.10487 0.0637818 128 0 128
0.535032 0.115654 -0.0404802 128 0 128
0.419275 -0.0285768 0.0748841 128 0 128
0.0668634 -0.379677 -0.0263397 128 0 128
-0.0425105 0.212653 -0.0655286 128 0 128
-0.0288315 -0.499626 -0.0149604 128 0 128
0.0502791 0.539198 -0.00859297 128 0 128
0.155707 0.639863 -0.0294652 128 0 128
0.670584 0.311066 -0.041302 128 0 128
0.231502 0.0877204 0.0417199 128 0 128
0.565028 0.0539506 -0.0734348 128 0 128
0.250553 -0.684191 -0.0333768 128 0 128
0.276352 -0.0882999 -0.079824 128 0 128
0.448234 0.0890585 -0.0540897 128 0 128
0.100223 0.613676 -0.0275907 128 0 128
0.547089 -0.00917742 -0.0960858 128 0 128
0.0565913 -0.230593 -0.0416975 128 0 128
0.119605 0.662506 -0.00856261 128 0 128
-0.348712 -0.100525 0.0594193 128 0 128
0.176663 0.0976848 0.0296059 128 0 128
-0.297331 0.373356 -0.0796428 128 0 128
-0.316614 0.0710052 -0.082096 128 0 128
-0.0246629 -0.14552 -0.0375019 128 0 128
0.255626 0.701919 -0.0319421 128 0 128
-0.562673 -0.0769389 -0.0328652 128 0 128
0.768406 0.405918 -0.0404677 128 0 128
0.542972 0.0128462 -0.0969673 128 0 128
0.0147004 -0.181858 -0.149542 128 0 128
-0.700103 0.0934469 -0.00157618 128 0 128
0.624704 0.0689638 -0.000816818 128 0 128
0.761384 0.0116731 0.277108 128 0 128
0.306477 0.0169573 0.194644 128 0 128
-0.941109 0.0881109 0.0585734 128 0 128
-0.171509 0.197652 -0.00759751 128 0 128
-0.0371236 0.282762 -0.0504142 128 0 128
-0.162452 -0.106634 0.00747405 128 0 128
0.101414 -0.540923 -0.0340623 128 0 128
0.0810148 -0.0966747 -0.093095 128 0 128
0.616258 0.0446406 0.0975858 128 0 128
0.70974 0.0151765 0.243065 128 0 128
0.355433 -0.0497465 -0.11165 128 0 128
-0.335418 -0.0554243 0.114358 128 0 128
-0.0705678 -0.106491 0.00022209 128 0 128
-0.0726976 -0.401895 -0.0324753 128 0 128
-0.0793419 -0.228405 -0.163179 128 0 128
0.166873 -0.611121 -0.0321982 128 0 128
0.086175 0.640354 -0.00933201 128 0 128
-0.223139 -0.167429 -0.00528313 128 0 128
-0.0406124 -0.0151743 0.105898 128 0 128
-0.25793 -0.181984 -0.0438636 128 0 128
-0.669695 -0.0348457 0.15111 128 0 128
-0.383533 -0.0455493 0.123893 128 0 128
-0.0824848 -0.27051 -0.0130613 128 0 128
-0.655091 0.0887372 0.108544 128 0 128
0.139485 -0.465364 -0.0293524 128 0 128
0.551221 -0.201021 -0.0271837 128 0 128
-0.690103 0.0224424 -0.0542174 128 0 128
0.511045 -0.0515337 0.0450228 128 0 128
-0.45585 0.084798 -0.0602749 128 0 128
0.159334 -0.0136324 -0.122258 128 0 128
-0.300051 -0.015529 0.126043 128 0 128
-0.0579937 0.369529 -0.0383454 128 0 128
0.621644 0.180889 -0.0437229 128 0 128
-0.915453 -0.0892193 0.0357057 128 0 128
0.16168 0.0979814 -0.0623704 128 0 128
-0.0852398 -0.183814 -0.1567 128 0 128
0.518894 -0.0724615 0.0182248 128 0 128
-0.00768314 0.105907 -0.0258326 128 0 128
-0.301524 -0.415152 -0.060657 128 0 128
-0.217638 -0.393821 -0.136294 128 0 128
-0.655802 -0.0600542 -0.0406641 128 0 128
-0.0408966 -0.459045 -0.00739266 128 0 128
-0.0891623 -0.36752 -0.0348916 128 0 128
-0.136206 -0.254094 -0.00741901 128 0 128
-0.177836 0.249842 -0.0440191 128 0 128
0.671087 -0.225534 -0.0442647 128 0 128
-0.06481 -0.432583 -0.00711355 128 0 128
-0.800155 0.0170707 -0.0468349 128 0 128
0.349331 0.0936242 0.0172225 128 0 128
-0.754664 -0.000159335 -0.0516269 128 0 128
-0.313616 -0.10797 -0.006977 128 0 128
0.0466455 -0.196408 -0.0640886 128 0 128
0.644365 -0.0793657 -0.0355231 128 0 128
0.149589 -0.481048 -0.040179 128 0 128
-0.361442 -0.0904149 0.0826116 128 0 128
0.0141701 -0.555159 -0.0187487 128 0 128
-0.157074 -0.151026 -0.0631626 128 0 128
0.137169 0.00634305 -0.121815 128 0 128
0.224733 0.66267 -0.031405 128 0 128
0.612154 -0.073706 -0.0279259 128 0 128
-0.884339 -0.0477006 0.149866 128 0 128
-0.195533 0.427515 -0.113363 128 0 128
0.379018 -0.0846297 0.0250829 128 0 128
0.0182608 0.261748 -0.0321125 128 0 128
-0.00318036 0.0660742 -0.106833 128 0 128
-0.405076 0.0796072 0.101252 128 0 128
-0.564563 0.0799384 -0.0308295 128 0 128
-0.702463 0.0711432 0.132026 128 0 128
0.558287 -0.0466499 0.113688 128 0 128
0.184091 0.0805264 0.0547515 128 0 128
0.698863 -0.360991 -0.0407125 128 0 128
-0.237185 0.41185 -0.037449 128 0 128
-0.249125 -0.12357 -0.0595121 128 0 128
-0.739315 -0.0863344 0.118273 128 0 128
-0.83399 -0.0045501 -0.0425569 128 0 128
0.382916 -0.0534836 0.0572823 128 0 128
0.199244 -0.10567 -0.0263893 128 0 128
0.601254 -0.00334081 0.202678 128 0 128
-0.280422 -0.417019 -0.118697 128 0 128
0.105788 0.516385 -0.0365442 128 0 128
0.112307 0.603195 -0.0106877 128 0 128
-0.788049 0.0647097 0.143075 128 0 128
-0.918674 0.0932259 0.0671341 128 0 128
-0.0815474 -0.421209 -0.0266586 128 0 128
0.0661572 -0.0980478 -0.0602239 128 0 128
-0.903339 0.0795998 0.0120584 128 0 128
-0.124558 -0.107075 -0.0164817 128 0 128
-0.937937 -0.0848743 0.0368778 128 0 128
0.27223 0.0568238 -0.113923 128 0 128
0.344939 -0.0661128 0.051203 128 0 128
-0.265326 0.378306 -0.0260955 128 0 128
0.0675648 -0.0175456 -0.114513 128 0 128
0.741671 -0.301424 -0.0436671 128 0 128
0.108869 -0.220811 -0.0603698 128 0 128
-0.717842 0.105299 0.072568 128 0 128
-0.267745 -0.0698787 -0.0859356 128 0 128
-0.290461 0.407166 -0.0694559 128 0 128
-0.123176 -0.400674 -0.114458 128 0 128
-0.704918 0.00776036 0.159413 128 0 128
-0.0436184 0.171451 -0.15702 128 0 128
0.47469 0.0785498 0.0241726 128 0 128
-0.072946 -0.216295 -0.140112 128 0 128
0.058056 0.0920898 0.0493297 128 0 128
-0.262339 -0.344991 -0.116923 128 0 128
0.393099 -0.0318877 -0.117032 128 0 128
-0.649735 -0.105895 0.0352997 128 0 128
-0.269104 0.0593793 0.106572 128 0 128
-0.118401 -0.0339857 0.1076 128 0 128
0.4955 0.0259721 -0.104658 128 0 128
0.0041057 -0.101675 0.027922 128 0 128
0.524167 0.0257869 0.0386812 128 0 128
-0.489986 0.0609847 -0.058581 128 0 128
-0.952419 0.0820933 0.0397055 128 0 128
0.335829 -0.029327 0.166553 128 0 128
-0.350861 -0.0339783 0.125017 128 0 128
0.104031 -0.104219 0.00772764 128 0 128
-0.520707 -0.103793 0.01027 128 0 128
0.325085 0.0664564 0.0551912 128 0 128
-0.753051 0.00408226 0.16335 128 0 128
-0.648409 -0.0459725 0.144795 128 0 128
0.46998 0.0486923 -0.099637 128 0 128
-0.265262 -0.389295 -0.133238 128 0 128
0.630135 0.00512327 0.230691 128 0 128
0.0939036 0.00627555 -0.1184 128 0 128
-0.200742 -0.363995 -0.133117 128 0 128
-0.210431 -0.25961 -0.032155 128 0 128
-0.224297 0.242869 -0.033831 128 0 128
0.08881 -0.281343 -0.0437325 128 0 128
0.0632418 -0.356983 -0.0285645 128 0 128
-0.779356 -0.0725769 -0.0214818 128 0 128
0.52453 0.0229974 -0.0991242 128 0 128
0.0788434 -0.373658 -0.0447401 128 0 128
-0.209358 0.105393 0.0373311 128 0 128
-0.646071 0.0935312 -0.00584065 128 0 128
0.211016 0.104348 -0.0510178 128 0 128
-0.06842 -0.302088 -0.0450632 128 0 128
0.744077 0.04689 5.63003e-05 128 0 128
0.404481 -0.05367 -0.102881 128 0 128
-0.89273 -0.0629038 -0.0101275 128 0 128
-0.175149 0.338646 -0.0739341 128 0 128
0.0951642 0.473168 -0.0207541 128 0 128
-0.917304 -0.0913422 0.0884652 128 0 128
0.642258 0.0627212 0.0117618 128 0 128
-0.793633 0.105081 0.0731329 128 0 128
0.0175864 -0.107754 -0.0517749 128 0 128
0.0317864 -0.384932 -0.0476453 128 0 128
-0.130394 -0.128885 -0.068481 128 0 128
-0.122364 -0.274172 -0.0456241 128 0 128
-0.545456 0.0717282 0.119584 128 0 128
0.442694 0.0772898 0.0305499 128 0 128
-0.333741 0.0987785 -0.0532624 128 0 128
0.0184439 0.0715279 -0.10854 128 0 128
-0.515587 -0.0536654 -0.0560446 128 0 128
0.446121 -0.0462749 0.138881 128 0 128
-0.0308355 -0.280729 -0.0506403 128 0 128
-0.778107 0.102805 0.0270488 128 0 128
0.753939 0.0109154 0.185309 128 0 128
0.713333 0.0130321 0.144929 128 0 128
0.612095 0.175574 -0.023739 128 0 128
0.812505 0.00688783 0.305775 128 0 128
0.0287126 0.050784 0.089789 128 0 128
0.180736 -0.025399 -0.12204 128 0 128
-0.530527 0.0865315 0.101863 128 0 128
0.19348 -0.0703391 0.061422 128 0 128
-0.0181949 0.195091 -0.16234 128 0 128
0.339238 0.0148583 -0.124924 128 0 128
0.787108 -0.00504681 0.329448 128 0 128
-0.12972 -0.356384 -0.00821924 128 0 128
0.0711107 -0.14027 -0.070741 128 0 128
0.693385 -0.0119991 0.173841 128 0 128
-0.306787 0.375041 -0.0316502 128 0 128
0.255132 -0.064963 -0.106741 128 0 128
-0.1747 0.260947 -0.00534723 128 0 128
-0.121506 -0.351271 -0.0324412 128 0 128
0.542369 0.153665 -0.0166683 128 0 128
-0.193603 -0.220983 -0.0473308 128 0 128
-0.0192833 0.0864491 -0.104562 128 0 128
-0.0601835 0.157625 -0.0677381 128 0 128
0.064405 -0.419981 -0.0214261 128 0 128
-0.0690219 0.342212 -0.0400797 128 0 128
-0.553258 -0.104344 0.0172528 128 0 128
0.110636 0.570192 -0.0325198 128 0 128
-0.257 0.0220782 0.121932 128 0 128
-0.576478 0.0461298 0.139092 128 0 128
0.765249 0.022823 -0.0460896 128 0 128
0.746857 0.0106194 0.164201 128 0 128
0.0663022 0.331723 -0.0473483 128 0 128
-0.0409913 0.192455 -0.14429 128 0 128
-0.890556 0.0604597 -0.0119193 128 0 128
0.15374 -0.353741 -0.0511553 128 0 128
0.526691 -0.00247216 0.118403 128 0 128
0.029536 -0.215535 -0.0397646 128 0 128
0.578176 0.0994712 -0.0444851 128 0 128
-0.00301962 -0.0369557 -0.106833 128 0 128
-0.894607 -0.00465167 -0.0327572 128 0 128
-0.669802 -0.00784788 0.156645 128 0 128
0.124239 0.316013 -0.0482075 128 0 128
0.211994 0.44765 -0.0458209 128 0 128
